1000.0 -0.0 -543.0
1000.0 46.166073 -468.73201
1000.0 56.381103 -283.44695
1000.0 40.930139 -134.92859
1000.0 33.676142 -81.301399
1000.0 31.112185 -58.206803
1000.0 31.667503 -47.393768
1000.0 27.913305 -34.01246
1000.0 28.991378 -28.991378
1000.0 29.374397 -24.106945
1000.0 24.112619 -16.111537
1000.0 26.457638 -14.141902
1000.0 22.173109 -9.184402
1000.0 23.923508 -7.257117
1000.0 20.596491 -4.096897
1000.0 11.942217 -1.176206
1500.0  1.0  0.0
1500.0 0.995185 0.098017
1500.0 12.750209 2.536174
1500.0 14.354105 4.35427
1500.0 13.858193 5.740251
1500.0 21.16611 11.313522
1500.0 21.61821 14.444826
1500.0 25.509345 20.934978
1500.0 23.334524 23.334524
1500.0 24.106945 29.374397
1500.0 25.00066 37.416133
1500.0 23.569837 44.096063
1500.0 22.961006 55.432772
1500.0 21.481066 70.813585
1500.0 20.289393 102.00167
1500.0 20.191531 205.00805
1500.0  0.0 548.0
1500.0 -60.084507 610.04824
1500.0 -122.9069 617.89473
1500.0 -168.36511 555.0254
1500.0 -201.67417 486.88451
1500.0 -666.08359 1246.1547
1500.0 -1167.8086 1747.7491
1500.0 -1421.6753 1732.3164
1500.0 -1300.3694 1300.3694
1500.0 -1485.7261 1219.3039
1500.0 -1578.1293 1054.4723
1500.0 -2297.4049 1227.9885
1500.0 -2147.096 889.3563
1500.0 -2995.2233 908.59104
1500.0 -3441.5755 684.57194
1500.0 -3754.832 369.81867
1500.0 -3780.0  0.0
1500.0 -3738.909 -368.2504
1500.0 -3393.5171 -675.01251
1500.0 -2711.012 -822.37649
1500.0 -1887.4859 -781.82225
1500.0 -1343.1661 -717.93723
1500.0 -1057.6293 -706.68534
1500.0 -845.67344 -694.02625
1500.0 -690.13622 -690.13622
1500.0 -557.6317 -679.47619
1500.0 -444.45619 -665.17569
1500.0 -352.60476 -659.67711
1500.0 -270.55719 -653.18283
1500.0 -195.0713 -643.06391
1500.0 -126.02835 -633.58729
1500.0 -57.830113 -587.15899
1500.0 -0.0 -535.0
1500.0 46.26409 -469.72719
1500.0 61.063271 -306.98579
1500.0 42.091278 -138.75635
1500.0 34.441509 -83.149158
1500.0 32.526375 -60.852567
1500.0 32.223074 -48.225238
1500.0 30.450878 -37.104502
1500.0 28.284271 -28.284271
1500.0 27.055366 -22.203765
1500.0 25.775558 -17.222677
1500.0 26.457638 -14.141902
1500.0 25.868627 -10.715136
1500.0 22.966568 -6.966832
1500.0 21.577276 -4.291987
1500.0 12.937401 -1.274223
2000.0  2.0  0.0
2000.0 1.990369 0.196034
2000.0 11.769423 2.341084
2000.0 14.354105 4.35427
2000.0 20.32535 8.419036
2000.0 21.16611 11.313522
2000.0 23.281149 15.555967
2000.0 23.190314 19.031799
2000.0 21.92031 21.92031
2000.0 23.472552 28.601387
2000.0 23.33395 34.921724
2000.0 24.51263 45.859906
2000.0 22.578323 54.508892
2000.0 21.771351 71.770525
2000.0 20.094303 101.02088
2000.0 18.623257 189.0851
2000.0  0.0 521.0
2000.0 -59.006318 599.10121
2000.0 -121.73636 612.01001
2000.0 -165.17198 544.49905
2000.0 -415.59421 1003.3332
2000.0 -996.5327 1864.3816
2000.0 -1448.3716 2167.6413
2000.0 -1497.1682 1824.3047
2000.0 -1822.9213 1822.9213
2000.0 -1602.4507 1315.0973
2000.0 -2089.4831 1396.148
2000.0 -2052.2308 1096.9402
2000.0 -2784.5729 1153.4079
2000.0 -2883.2612 874.62773
2000.0 -3628.9055 721.83419
2000.0 -3769.7597 371.28893
2000.0 -3742.0  0.0
2000.0 -3715.0246 -365.89799
2000.0 -3119.878 -620.58231
2000.0 -2509.0976 -761.12642
2000.0 -1966.0156 -814.35034
2000.0 -1344.048 -718.40863
2000.0 -1071.7643 -716.13003
2000.0 -858.81461 -704.81094
2000.0 -697.91439 -697.91439
2000.0 -565.24442 -688.75231
2000.0 -452.78974 -677.64773
2000.0 -358.26152 -670.26016
2000.0 -273.61865 -660.57387
2000.0 -198.55472 -654.54719
2000.0 -128.36943 -645.35672
2000.0 -58.908301 -598.10602
2000.0 -0.0 -539.0
2000.0 45.185902 -458.78016
2000.0 58.332006 -293.2548
2000.0 40.639855 -133.97165
2000.0 34.441509 -83.149158
2000.0 32.054978 -59.970646
2000.0 32.223074 -48.225238
2000.0 28.547698 -34.78547
2000.0 27.577164 -27.577164
2000.0 27.055366 -22.203765
2000.0 25.775558 -17.222677
2000.0 27.339559 -14.613299
2000.0 24.944747 -10.332453
2000.0 22.966568 -6.966832
2000.0 21.577276 -4.291987
2000.0 9.951847 -0.980171
2500.0  0.0  0.0
2500.0  0.0  0.0
2500.0 11.769423 2.341084
2500.0 14.354105 4.35427
2500.0 18.477591 7.653669
2500.0 20.284189 10.842125
2500.0 21.61821 14.444826
2500.0 22.417303 18.397405
2500.0 25.455844 25.455844
2500.0 22.838158 27.828376
2500.0 23.88952 35.753193
2500.0 24.51263 45.859906
2500.0 22.578323 54.508892
2500.0 22.642205 74.641346
2500.0 20.289393 102.00167
2500.0 20.583599 208.98879
2500.0  0.0 539.0
2500.0 -59.888473 608.05787
2500.0 -123.49217 620.83708
2500.0 -174.46109 575.12114
2500.0 -342.88436 827.79606
2500.0 -1101.1828 2060.1681
2500.0 -1415.0374 2117.7531
2500.0 -1285.2808 1566.1192
2500.0 -2027.9822 2027.9822
2500.0 -1692.8929 1389.3213
2500.0 -1903.2339 1271.7003
2500.0 -2430.575 1299.1694
2500.0 -2381.7614 986.55789
2500.0 -2396.1786 726.87283
2500.0 -3490.6148 694.32646
2500.0 -3741.8946 368.54445
2500.0 -3796.0  0.0
2500.0 -3730.9475 -367.46626
2500.0 -3488.6532 -693.93628
2500.0 -2436.3701 -739.06479
2500.0 -1949.3858 -807.46204
2500.0 -1316.7084 -703.79533
2500.0 -1049.3147 -701.12963
2500.0 -843.35441 -692.12307
2500.0 -687.30779 -687.30779
2500.0 -553.82534 -674.83813
2500.0 -442.78948 -662.68128
2500.0 -351.19057 -657.03134
2500.0 -267.8784 -646.71567
2500.0 -194.20045 -640.19308
2500.0 -125.63817 -631.62572
2500.0 -57.536061 -584.17344
2500.0 -0.0 -534.0
2500.0 46.26409 -469.72719
2500.0 62.233813 -312.8705
2500.0 42.671848 -140.67023
2500.0 34.441509 -83.149158
2500.0 32.526375 -60.852567
2500.0 32.778644 -49.056707
2500.0 29.816484 -36.331491
2500.0 28.284271 -28.284271
2500.0 27.828376 -22.838158
2500.0 24.944088 -16.667107
2500.0 26.457638 -14.141902
2500.0 26.792506 -11.09782
2500.0 23.923508 -7.257117
2500.0 20.596491 -4.096897
2500.0 13.932586 -1.37224
3000.0  0.0  0.0
3000.0 2.985554 0.294051
3000.0 12.750209 2.536174
3000.0 15.311045 4.644555
3000.0 21.249229 8.801719
3000.0 20.284189 10.842125
3000.0 23.281149 15.555967
3000.0 24.736335 20.300585
3000.0 21.92031 21.92031
3000.0 24.106945 29.374397
3000.0 23.88952 35.753193
3000.0 23.09844 43.214142
3000.0 22.578323 54.508892
3000.0 22.061635 72.727466
3000.0 20.289393 102.00167
3000.0 21.073685 213.96472
3000.0  0.0 574.0
3000.0 -63.123038 640.89896
3000.0 -129.53997 651.24143
3000.0 -164.01084 540.67129
3000.0 -194.0205 468.40692
3000.0 -740.56427 1385.4983
3000.0 -1153.3638 1726.1309
3000.0 -1089.2533 1327.2589
3000.0 -1526.6435 1526.6435
3000.0 -1505.0514 1235.1637
3000.0 -2769.6253 1850.6044
3000.0 -2402.3535 1284.0847
3000.0 -2476.921 1025.9743
3000.0 -2907.1847 881.88485
3000.0 -3504.3458 697.05772
3000.0 -3715.0246 365.89799
3000.0 -3795.0  0.0
3000.0 -3710.0487 -365.4079
3000.0 -3527.8847 -701.73989
3000.0 -3206.7071 -972.74395
3000.0 -1616.7892 -669.69601
3000.0 -1232.9259 -659.01264
3000.0 -985.29149 -658.35073
3000.0 -792.33572 -650.25312
3000.0 -642.05296 -642.05296
3000.0 -522.10567 -636.1876
3000.0 -417.78881 -625.26515
3000.0 -330.44911 -618.22681
3000.0 -252.95375 -610.68437
3000.0 -182.58906 -601.91547
3000.0 -118.41983 -595.33667
3000.0 -54.889599 -557.30345
3000.0 -0.0 -511.0
3000.0 44.793833 -454.79942
3000.0 61.453451 -308.94736
3000.0 42.381563 -139.71329
3000.0 34.824192 -84.073037
3000.0 32.997772 -61.734489
3000.0 34.445354 -51.551116
3000.0 31.719664 -38.650523
3000.0 28.991378 -28.991378
3000.0 28.601387 -23.472552
3000.0 26.607028 -17.778247
3000.0 27.339559 -14.613299
3000.0 27.716386 -11.480503
3000.0 25.837389 -7.837686
3000.0 22.558061 -4.487077
3000.0 10.947032 -1.078189
3500.0  0.0  0.0
3500.0  0.0  0.0
3500.0 11.769423 2.341084
3500.0 17.224926 5.225124
3500.0 20.32535 8.419036
3500.0 21.16611 11.313522
3500.0 22.44968 15.000396
3500.0 23.190314 19.031799
3500.0 23.334524 23.334524
3500.0 24.106945 29.374397
3500.0 23.88952 35.753193
3500.0 24.51263 45.859906
3500.0 22.961006 55.432772
3500.0 22.061635 72.727466
3500.0 20.289393 102.00167
3500.0 29.503159 299.5506
3500.0  0.0 626.0
3500.0 -63.515107 644.8797
3500.0 -128.36943 645.35672
3500.0 -189.26561 623.9251
3500.0 -255.24985 616.22765
3500.0 -333.27749 623.51833
3500.0 -423.90009 634.41131
3500.0 -516.39613 629.23051
3500.0 -661.85195 661.85195
3500.0 -902.1032 740.33696
3500.0 -1010.2356 675.01783
3500.0 -1665.9493 890.46844
3500.0 -1573.3668 651.70988
3500.0 -3228.7167 979.4205
3500.0 -3530.827 702.32516
3500.0 -3751.8464 369.52462
3500.0 -3838.0  0.0
3500.0 -3726.9668 -367.07419
3500.0 -3346.4394 -665.64818
3500.0 -2518.667 -764.02927
3500.0 -1626.028 -673.52284
3500.0 -1157.0807 -618.47252
3500.0 -930.4145 -621.68309
3500.0 -745.95509 -612.18952
3500.0 -603.16208 -603.16208
3500.0 -489.11722 -595.99106
3500.0 -390.56587 -584.52314
3500.0 -309.23626 -578.54035
3500.0 -235.35031 -568.18591
3500.0 -170.39711 -561.72398
3500.0 -111.00639 -558.06682
3500.0 -51.75305 -525.45754
3500.0 -0.0 -484.0
3500.0 42.735473 -433.90054
3500.0 62.233813 -312.8705
3500.0 44.123271 -145.45493
3500.0 34.058825 -82.225278
3500.0 32.054978 -59.970646
3500.0 31.667503 -47.393768
3500.0 31.085271 -37.877512
3500.0 26.870058 -26.870058
3500.0 27.828376 -22.838158
3500.0 25.775558 -17.222677
3500.0 28.22148 -15.084696
3500.0 25.868627 -10.715136
3500.0 23.923508 -7.257117
3500.0 20.596491 -4.096897
3500.0 12.937401 -1.274223
4000.0  0.0  0.0
4000.0  0.0  0.0
4000.0 13.730994 2.731265
4000.0 14.354105 4.35427
4000.0 19.40147 8.036352
4000.0 20.284189 10.842125
4000.0 22.44968 15.000396
4000.0 24.736335 20.300585
4000.0 24.041631 24.041631
4000.0 24.106945 29.374397
4000.0 24.44509 36.584663
4000.0 25.926821 48.50567
4000.0 23.343689 56.356651
4000.0 22.642205 74.641346
4000.0 19.509032 98.078528
4000.0 20.289548 206.00324
4000.0  0.0 618.0
4000.0 -65.867518 668.76414
4000.0 -134.02705 673.79949
4000.0 -155.88287 513.87696
4000.0 -375.41245 906.32582
4000.0 -930.06576 1740.0307
4000.0 -996.693 1491.6565
4000.0 -1098.1348 1338.0811
4000.0 -1773.4238 1773.4238
4000.0 -1938.7102 1591.0584
4000.0 -2692.2986 1798.9364
4000.0 -1949.046 1041.7868
4000.0 -2184.9751 905.04632
4000.0 -2714.8397 823.53763
4000.0 -3642.6365 724.56546
4000.0 -3763.7886 370.70083
4000.0 -3803.0  0.0
4000.0 -3519.9684 -346.68662
4000.0 -2902.1436 -577.27226
4000.0 -2568.4279 -779.12407
4000.0 -1771.0771 -733.60414
4000.0 -1210.8779 -647.22772
4000.0 -958.68446 -640.57248
4000.0 -771.46443 -633.1245
4000.0 -623.66818 -623.66818
4000.0 -506.24584 -616.86234
4000.0 -403.34399 -603.64694
4000.0 -320.07838 -598.82454
4000.0 -243.76935 -588.51126
4000.0 -177.07365 -583.73361
4000.0 -113.93275 -572.7786
4000.0 -53.321324 -541.38049
4000.0 -0.0 -492.0
4000.0 42.83349 -434.89573
4000.0 62.038722 -311.88972
4000.0 42.091278 -138.75635
4000.0 36.354926 -87.768556
4000.0 31.583581 -59.088725
4000.0 31.111933 -46.562298
4000.0 29.816484 -36.331491
4000.0 29.698485 -29.698485
4000.0 30.147408 -24.741338
4000.0 26.607028 -17.778247
4000.0 27.339559 -14.613299
4000.0 25.868627 -10.715136
4000.0 22.966568 -6.966832
4000.0 21.577276 -4.291987
4000.0 11.942217 -1.176206
4500.0  0.0  0.0
4500.0  0.0  0.0
4500.0 12.750209 2.536174
4500.0 13.397165 4.063985
4500.0 18.477591 7.653669
4500.0 19.402268 10.370728
4500.0 24.112619 16.111537
4500.0 23.963324 19.666192
4500.0 23.334524 23.334524
4500.0 24.106945 29.374397
4500.0 23.88952 35.753193
4500.0 24.51263 45.859906
4500.0 22.578323 54.508892
4500.0 21.771351 71.770525
4500.0 19.704123 99.059313
4500.0 17.545068 178.13807
4500.0  0.0 584.0
4500.0 -66.259587 672.74487
4500.0 -135.78286 682.62656
4500.0 -186.65305 615.31264
4500.0 -207.7971 501.66659
4500.0 -638.27118 1194.1214
4500.0 -1000.0264 1496.6453
4500.0 -1065.7807 1298.6576
4500.0 -919.94592 919.94592
4500.0 -1769.4209 1452.1262
4500.0 -1735.2771 1159.4751
4500.0 -1717.1007 917.80945
4500.0 -1853.3023 767.66296
4500.0 -2812.4476 853.14667
4500.0 -3513.1729 698.81353
4500.0 -3720.0005 366.38807
4500.0 -3745.0  0.0
4500.0 -3636.405 -358.15463
4500.0 -2964.9139 -589.75804
4500.0 -2628.7151 -797.41201
4500.0 -1641.7339 -680.02846
4500.0 -1205.5864 -644.39934
4500.0 -959.51593 -641.12805
4500.0 -772.23744 -633.75889
4500.0 -625.0824 -625.0824
4500.0 -504.97705 -615.31632
4500.0 -402.78842 -602.81547
4500.0 -318.66419 -596.17877
4500.0 -244.9174 -591.2829
4500.0 -176.49308 -581.81972
4500.0 -114.12784 -573.75939
4500.0 -53.223307 -540.38531
4500.0 -0.0 -488.0
4500.0 42.343405 -429.9198
4500.0 59.307458 -298.15873
4500.0 42.091278 -138.75635
4500.0 36.73761 -88.692435
4500.0 32.997772 -61.734489
4500.0 32.778644 -49.056707
4500.0 30.450878 -37.104502
4500.0 28.991378 -28.991378
4500.0 27.828376 -22.838158
4500.0 26.607028 -17.778247
4500.0 26.457638 -14.141902
4500.0 27.716386 -11.480503
4500.0 23.923508 -7.257117
4500.0 19.615706 -3.901806
4500.0 13.932586 -1.37224
5000.0  1.0  0.0
5000.0 1.990369 0.196034
5000.0 13.730994 2.731265
5000.0 16.267986 4.93484
5000.0 19.40147 8.036352
5000.0 22.048032 11.784918
5000.0 23.281149 15.555967
5000.0 25.509345 20.934978
5000.0 22.627417 22.627417
5000.0 24.106945 29.374397
5000.0 25.00066 37.416133
5000.0 24.984027 46.741827
5000.0 22.195639 53.585013
5000.0 22.35192 73.684406
5000.0 20.289393 102.00167
5000.0 21.269719 215.95509
5000.0  0.0 580.0
5000.0 -62.240884 631.9423
5000.0 -126.80871 637.51043
5000.0 -164.30113 541.62823
5000.0 -363.93194 878.60943
5000.0 -1260.5149 2358.2575
5000.0 -1241.6995 1858.3346
5000.0 -1684.3142 2052.3428
5000.0 -1585.3334 1585.3334
5000.0 -1262.3261 1035.9642
5000.0 -1609.7252 1075.584
5000.0 -2312.3976 1236.0022
5000.0 -2005.7425 830.80573
5000.0 -2834.4573 859.82321
5000.0 -3598.5012 715.78639
5000.0 -3728.9572 367.27022
5000.0 -3780.0  0.0
5000.0 -3773.7405 -371.681
5000.0 -3580.8471 -712.27477
5000.0 -2045.9384 -620.62864
5000.0 -1665.7548 -689.97823
5000.0 -1283.1954 -685.88225
5000.0 -1022.7076 -683.35139
5000.0 -824.02914 -676.26324
5000.0 -668.92301 -668.92301
5000.0 -540.50308 -658.60491
5000.0 -433.90035 -649.37777
5000.0 -344.59102 -644.68444
5000.0 -263.66888 -636.553
5000.0 -190.42675 -627.75286
5000.0 -123.29708 -619.8563
5000.0 -56.457873 -573.2264
5000.0 -0.0 -517.0
5000.0 45.185902 -458.78016
5000.0 61.063271 -306.98579
5000.0 40.930139 -134.92859
5000.0 34.058825 -82.225278
5000.0 32.054978 -59.970646
5000.0 31.667503 -47.393768
5000.0 29.816484 -36.331491
5000.0 28.284271 -28.284271
5000.0 27.055366 -22.203765
5000.0 24.944088 -16.667107
5000.0 26.457638 -14.141902
5000.0 23.096988 -9.567086
5000.0 23.923508 -7.257117
5000.0 20.596491 -4.096897
5000.0 13.932586 -1.37224
5500.0  1.0  0.0
5500.0  0.0  0.0
5500.0 10.788638 2.145994
5500.0 14.354105 4.35427
5500.0 17.553711 7.270985
5500.0 23.811874 12.727712
5500.0 24.944088 16.667107
5500.0 23.190314 19.031799
5500.0 21.213203 21.213203
5500.0 24.741338 30.147408
5500.0 23.88952 35.753193
5500.0 23.569837 44.096063
5500.0 23.343689 56.356651
5500.0 22.642205 74.641346
5500.0 20.289393 102.00167
5500.0 22.445925 227.8973
5500.0  0.0 505.0
5500.0 -53.909427 547.3516
5500.0 -111.20148 559.04761
5500.0 -161.39828 532.05883
5500.0 -352.06876 849.96917
5500.0 -1242.6018 2324.7445
5500.0 -1378.9253 2063.7076
5500.0 -1695.0989 2065.4839
5500.0 -1601.5969 1601.5969
5500.0 -2050.7967 1683.0454
5500.0 -2254.1141 1506.1509
5500.0 -1894.3669 1012.5602
5500.0 -2344.8063 971.25055
5500.0 -3282.3054 995.67644
5500.0 -3641.6557 724.37037
5500.0 -3693.1305 363.74161
5500.0 -3727.0  0.0
5500.0 -3726.9668 -367.07419
5500.0 -3099.2815 -616.48542
5500.0 -2548.3321 -773.0281
5500.0 -2197.9094 -910.40389
5500.0 -1454.2882 -777.33322
5500.0 -1149.091 -767.79806
5500.0 -930.70459 -763.80951
5500.0 -755.89715 -755.89715
5500.0 -611.55513 -745.18208
5500.0 -489.45738 -732.52473
5500.0 -387.01672 -724.05736
5500.0 -295.43161 -713.235
5500.0 -214.52038 -707.17891
5500.0 -138.31904 -695.37676
5500.0 -63.123038 -640.89896
5500.0 -0.0 -556.0
5500.0 44.499782 -451.81387
5500.0 54.62529 -274.61988
5500.0 38.898147 -128.23001
5500.0 35.206876 -84.996917
5500.0 31.112185 -58.206803
5500.0 32.223074 -48.225238
5500.0 29.816484 -36.331491
5500.0 26.870058 -26.870058
5500.0 30.920418 -25.375731
5500.0 25.775558 -17.222677
5500.0 26.457638 -14.141902
5500.0 24.944747 -10.332453
5500.0 23.923508 -7.257117
5500.0 23.538847 -4.682168
5500.0 11.942217 -1.176206
6000.0  1.0  0.0
6000.0  0.0  0.0
6000.0 11.769423 2.341084
6000.0 15.311045 4.644555
6000.0 20.32535 8.419036
6000.0 21.16611 11.313522
6000.0 23.281149 15.555967
6000.0 21.644293 17.763012
6000.0 26.162951 26.162951
6000.0 24.106945 29.374397
6000.0 25.00066 37.416133
6000.0 24.51263 45.859906
6000.0 22.961006 55.432772
6000.0 21.771351 71.770525
6000.0 20.094303 101.02088
6000.0 21.661788 219.93582
6000.0  0.0 527.0
6000.0 -55.085633 559.29382
6000.0 -113.15239 568.85546
6000.0 -166.6234 549.28375
6000.0 -286.62989 691.98577
6000.0 -865.01301 1618.3255
6000.0 -1276.1448 1909.8857
6000.0 -1593.5959 1941.8023
6000.0 -1394.4146 1394.4146
6000.0 -1177.2949 966.18097
6000.0 -2399.6213 1603.3757
6000.0 -1880.2561 1005.0178
6000.0 -2159.1065 894.33118
6000.0 -2651.6817 804.37884
6000.0 -3507.2882 697.64299
6000.0 -3817.5286 375.99375
6000.0 -3736.0  0.0
6000.0 -3722.9861 -366.68212
6000.0 -3227.7644 -642.04225
6000.0 -2873.6918 -871.72489
6000.0 -2076.8812 -860.27236
6000.0 -1442.8232 -771.20506
6000.0 -1130.7987 -755.57552
6000.0 -917.56341 -753.02483
6000.0 -740.3408 -740.3408
6000.0 -603.30801 -735.13294
6000.0 -481.12382 -720.05268
6000.0 -382.30275 -715.23815
6000.0 -291.60478 -703.9962
6000.0 -211.03696 -695.69562
6000.0 -135.97795 -683.60734
6000.0 -61.848816 -627.96156
6000.0 -0.0 -550.0
6000.0 44.597799 -452.80905
6000.0 56.186013 -282.46616
6000.0 39.769001 -131.10083
6000.0 33.293459 -80.377519
6000.0 31.112185 -58.206803
6000.0 31.667503 -47.393768
6000.0 29.816484 -36.331491
6000.0 28.284271 -28.284271
6000.0 28.601387 -23.472552
6000.0 24.944088 -16.667107
6000.0 28.22148 -15.084696
6000.0 24.944747 -10.332453
6000.0 23.923508 -7.257117
6000.0 23.538847 -4.682168
6000.0 11.942217 -1.176206
6500.0  1.0  0.0
6500.0  0.0  0.0
6500.0 11.769423 2.341084
6500.0 14.354105 4.35427
6500.0 18.477591 7.653669
6500.0 22.048032 11.784918
6500.0 22.44968 15.000396
6500.0 23.963324 19.666192
6500.0 22.627417 22.627417
6500.0 23.472552 28.601387
6500.0 23.33395 34.921724
6500.0 24.51263 45.859906
6500.0 23.726373 57.280531
6500.0 22.061635 72.727466
6500.0 20.484484 102.98245
6500.0 20.387565 206.99842
6500.0  0.0 547.0
6500.0 -59.30037 602.08676
6500.0 -120.956 608.08687
6500.0 -173.88052 573.20726
6500.0 -614.97228 1484.6744
6500.0 -1169.5353 2188.0467
6500.0 -1403.3704 2100.2922
6500.0 -1670.3575 2035.3365
6500.0 -1788.2731 1788.2731
6500.0 -2382.4182 1955.2001
6500.0 -2144.3601 1432.8156
6500.0 -1186.1841 634.02861
6500.0 -2849.2445 1180.1957
6500.0 -2045.9384 620.62864
6500.0 -3508.2689 697.83808
6500.0 -3696.1161 364.03566
6500.0 -3824.0  0.0
6500.0 -3770.7549 -371.38695
6500.0 -3657.3483 -727.49181
6500.0 -2205.7475 -669.10618
6500.0 -1821.8904 -754.65173
6500.0 -1344.9299 -718.88002
6500.0 -1080.079 -721.68573
6500.0 -868.86375 -713.05805
6500.0 -707.10678 -707.10678
6500.0 -572.22274 -697.25543
6500.0 -458.34544 -685.96243
6500.0 -362.97549 -679.07937
6500.0 -278.59354 -672.5843
6500.0 -201.16728 -663.15965
6500.0 -129.93015 -653.203
6500.0 -59.104336 -600.09639
6500.0 -0.0 -528.0
6500.0 46.26409 -469.72719
6500.0 57.356555 -288.35087
6500.0 40.34957 -133.01471
6500.0 34.058825 -82.225278
6500.0 31.583581 -59.088725
6500.0 32.223074 -48.225238
6500.0 30.450878 -37.104502
6500.0 29.698485 -29.698485
6500.0 27.055366 -22.203765
6500.0 24.944088 -16.667107
6500.0 26.457638 -14.141902
6500.0 23.096988 -9.567086
6500.0 22.966568 -6.966832
6500.0 20.596491 -4.096897
6500.0 10.947032 -1.078189
7000.0  3.0  0.0
7000.0 1.990369 0.196034
7000.0 12.750209 2.536174
7000.0 14.354105 4.35427
7000.0 19.40147 8.036352
7000.0 22.929953 12.256315
7000.0 23.281149 15.555967
7000.0 23.963324 19.666192
7000.0 21.92031 21.92031
7000.0 24.741338 30.147408
7000.0 24.44509 36.584663
7000.0 23.569837 44.096063
7000.0 22.961006 55.432772
7000.0 22.642205 74.641346
7000.0 19.899213 100.0401
7000.0 22.543942 228.89249
7000.0  0.0 520.0
7000.0 -55.477701 563.27455
7000.0 -114.9082 577.68253
7000.0 -172.4291 568.42256
7000.0 -717.14875 1731.3502
7000.0 -974.37706 1822.9313
7000.0 -1365.5916 2043.7523
7000.0 -1327.7851 1617.9109
7000.0 -1646.1446 1646.1446
7000.0 -1982.7718 1627.2188
7000.0 -3074.7746 2054.4987
7000.0 -1480.7458 791.47512
7000.0 -2773.4864 1148.8157
7000.0 -3614.3636 1096.4052
7000.0 -3489.634 694.13137
7000.0 -3694.1257 363.83963
7000.0 -3686.0  0.0
7000.0 -3780.7068 -372.36712
7000.0 -3667.1562 -729.44271
7000.0 -3102.4006 -941.10292
7000.0 -2060.2514 -853.38405
7000.0 -1397.8452 -747.16383
7000.0 -1121.6525 -749.46424
7000.0 -902.87621 -740.97136
7000.0 -736.80527 -736.80527
7000.0 -595.69529 -725.85682
7000.0 -476.12369 -712.56946
7000.0 -378.06018 -707.30085
7000.0 -288.92599 -697.52905
7000.0 -209.00497 -688.99704
7000.0 -134.80741 -677.72263
7000.0 -61.456747 -623.98082
7000.0 -0.0 -559.0
7000.0 47.63633 -483.65978
7000.0 58.136916 -292.27401
7000.0 40.930139 -134.92859
7000.0 33.676142 -81.301399
7000.0 32.054978 -59.970646
7000.0 33.334214 -49.888177
7000.0 30.450878 -37.104502
7000.0 30.405592 -30.405592
7000.0 27.828376 -22.838158
7000.0 24.944088 -16.667107
7000.0 27.339559 -14.613299
7000.0 25.868627 -10.715136
7000.0 24.880449 -7.547402
7000.0 21.577276 -4.291987
7000.0 13.932586 -1.37224
7500.0  2.0  0.0
7500.0  0.0  0.0
7500.0 14.711779 2.926355
7500.0 15.311045 4.644555
7500.0 21.249229 8.801719
7500.0 23.811874 12.727712
7500.0 24.944088 16.667107
7500.0 25.509345 20.934978
7500.0 22.627417 22.627417
7500.0 24.106945 29.374397
7500.0 25.00066 37.416133
7500.0 23.569837 44.096063
7500.0 22.578323 54.508892
7500.0 22.35192 73.684406
7500.0 20.094303 101.02088
7500.0 22.151874 224.91175
7500.0  0.0 508.0
7500.0 -53.909427 547.3516
7500.0 -110.8113 557.08604
7500.0 -167.49426 552.15457
7500.0 -652.85794 1576.1385
7500.0 -1065.3566 1993.1421
7500.0 -1318.9237 1973.9089
7500.0 -1106.3819 1348.1302
7500.0 -1221.8805 1221.8805
7500.0 -2678.4812 2198.1727
7500.0 -2604.9943 1740.6015
7500.0 -1921.7064 1027.1735
7500.0 -2646.9149 1096.388
7500.0 -2474.6477 750.67617
7500.0 -3287.5923 653.94276
7500.0 -3653.3231 359.82092
7500.0 -3760.0  0.0
7500.0 -3815.5382 -375.79772
7500.0 -3714.2339 -738.80705
7500.0 -2765.5576 -838.92272
7500.0 -2062.0991 -854.14942
7500.0 -1468.3989 -784.87557
7500.0 -1153.2484 -770.57591
7500.0 -933.02362 -765.71269
7500.0 -753.06872 -753.06872
7500.0 -610.28634 -743.63606
7500.0 -490.01295 -733.3562
7500.0 -386.07393 -722.29352
7500.0 -296.19698 -715.08276
7500.0 -214.23009 -706.22197
7500.0 -138.70922 -697.33833
7500.0 -62.73097 -636.91823
7500.0 -0.0 -568.0
7500.0 46.95021 -476.69348
7500.0 57.551645 -289.33166
7500.0 40.059285 -132.05777
7500.0 34.441509 -83.149158
7500.0 32.054978 -59.970646
7500.0 31.667503 -47.393768
7500.0 29.816484 -36.331491
7500.0 28.991378 -28.991378
7500.0 29.374397 -24.106945
7500.0 26.607028 -17.778247
7500.0 27.339559 -14.613299
7500.0 24.944747 -10.332453
7500.0 22.966568 -6.966832
7500.0 21.577276 -4.291987
7500.0 13.932586 -1.37224
8000.0  2.0  0.0
8000.0 1.990369 0.196034
8000.0 11.769423 2.341084
8000.0 13.397165 4.063985
8000.0 18.477591 7.653669
8000.0 23.811874 12.727712
8000.0 24.112619 16.111537
8000.0 26.282355 21.569372
8000.0 22.627417 22.627417
8000.0 25.375731 30.920418
8000.0 24.44509 36.584663
8000.0 24.041234 44.977984
8000.0 23.343689 56.356651
8000.0 22.061635 72.727466
8000.0 19.704123 99.059313
8000.0 19.603428 199.03695
8000.0  0.0 545.0
8000.0 -59.104336 600.09639
8000.0 -120.956 608.08687
8000.0 -180.55707 595.21689
8000.0 -484.47722 1169.6315
8000.0 -928.18017 1736.503
8000.0 -1148.3637 1718.6477
8000.0 -1429.2881 1741.5926
8000.0 -1149.0485 1149.0485
8000.0 -1456.3517 1195.1969
8000.0 -496.38736 331.67543
8000.0 -2762.1774 1476.4146
8000.0 -3127.3322 1295.3834
8000.0 -2927.2805 887.98083
8000.0 -3525.9231 701.34971
8000.0 -3754.832 369.81867
8000.0 -3845.0  0.0
8000.0 -3734.9283 -367.85833
8000.0 -3150.2823 -626.63011
8000.0 -2712.9259 -822.95706
8000.0 -1925.3649 -797.51227
8000.0 -1368.7418 -731.60774
8000.0 -1085.8993 -725.57472
8000.0 -871.18278 -714.96123
8000.0 -707.10678 -707.10678
8000.0 -575.39471 -701.12048
8000.0 -458.90101 -686.7939
8000.0 -364.38968 -681.72514
8000.0 -278.59354 -672.5843
8000.0 -201.74785 -665.07353
8000.0 -130.90561 -658.10692
8000.0 -58.516233 -594.12528
8000.0 -0.0 -530.0
8000.0 44.20573 -448.82831
8000.0 53.454748 -268.73517
8000.0 39.478716 -130.14389
8000.0 34.824192 -84.073037
8000.0 33.469168 -62.61641
8000.0 32.778644 -49.056707
8000.0 30.450878 -37.104502
8000.0 28.991378 -28.991378
8000.0 27.828376 -22.838158
8000.0 25.775558 -17.222677
8000.0 27.339559 -14.613299
8000.0 24.944747 -10.332453
8000.0 21.052687 -6.386263
8000.0 21.577276 -4.291987
8000.0 13.932586 -1.37224
8500.0  2.0  0.0
8500.0 3.980739 0.392069
8500.0 11.769423 2.341084
8500.0 14.354105 4.35427
8500.0 17.553711 7.270985
8500.0 21.16611 11.313522
8500.0 22.44968 15.000396
8500.0 26.282355 21.569372
8500.0 22.627417 22.627417
8500.0 24.106945 29.374397
8500.0 24.44509 36.584663
8500.0 24.51263 45.859906
8500.0 23.343689 56.356651
8500.0 22.35192 73.684406
8500.0 19.704123 99.059313
8500.0 21.367737 216.95027
8500.0  0.0 547.0
8500.0 -57.92813 588.15417
8500.0 -120.37073 605.14452
8500.0 -177.36394 584.69055
8500.0 -506.67286 1223.2165
8500.0 -833.90083 1560.1187
8500.0 -1259.4777 1884.9416
8500.0 -1087.9845 1325.7129
8500.0 -1900.703 1900.703
8500.0 -2176.0244 1785.8171
8500.0 -1227.2491 820.02166
8500.0 -2212.7405 1182.7344
8500.0 -2997.9891 1241.8077
8500.0 -3763.6463 1141.6896
8500.0 -3431.7677 682.62104
8500.0 -3699.1016 364.32971
8500.0 -3893.0  0.0
8500.0 -3786.6779 -372.95522
8500.0 -3583.7894 -712.86004
8500.0 -2172.2546 -658.94622
8500.0 -1814.4994 -751.59026
8500.0 -1397.8452 -747.16383
8500.0 -1107.5175 -740.01955
8500.0 -873.50181 -716.86441
8500.0 -711.34942 -711.34942
8500.0 -572.22274 -697.25543
8500.0 -454.45645 -680.14214
8500.0 -362.03269 -677.31553
8500.0 -278.21085 -671.66042
8500.0 -202.03814 -666.03047
8500.0 -129.73506 -652.22221
8500.0 -59.202353 -601.09158
8500.0 -0.0 -527.0
8500.0 44.499782 -451.81387
8500.0 53.259658 -267.75438
8500.0 39.769001 -131.10083
8500.0 35.589559 -85.920797
8500.0 31.112185 -58.206803
8500.0 29.445222 -44.067889
8500.0 29.182091 -35.558481
8500.0 28.284271 -28.284271
8500.0 27.828376 -22.838158
8500.0 24.112619 -16.111537
8500.0 26.457638 -14.141902
8500.0 23.096988 -9.567086
8500.0 22.966568 -6.966832
8500.0 19.615706 -3.901806
8500.0 10.947032 -1.078189
9000.0  1.0  0.0
9000.0 0.995185 0.098017
9000.0 12.750209 2.536174
9000.0 13.397165 4.063985
9000.0 19.40147 8.036352
9000.0 21.16611 11.313522
9000.0 23.281149 15.555967
9000.0 23.963324 19.666192
9000.0 23.334524 23.334524
9000.0 25.375731 30.920418
9000.0 25.00066 37.416133
9000.0 25.455424 47.623748
9000.0 23.343689 56.356651
9000.0 22.93249 75.598287
9000.0 20.289393 102.00167
9000.0 21.661788 219.93582
9000.0  0.0 552.0
9000.0 -59.006318 599.10121
9000.0 -120.956 608.08687
9000.0 -188.39476 621.05428
9000.0 -548.00267 1322.9955
9000.0 -1058.7571 1980.7952
9000.0 -2357.8401 3528.757
9000.0 -784.74449 956.21393
9000.0 -479.4184 479.4184
9000.0 -1149.4665 943.34281
9000.0 -2781.2659 1858.3824
9000.0 -2251.545 1203.4759
9000.0 -3029.401 1254.819
9000.0 -2560.7723 776.8018
9000.0 -3005.1261 597.75675
9000.0 -3977.7534 391.77451
9000.0 -3566.0  0.0
9000.0 -3380.6425 -332.96423
9000.0 -3755.4268 -747.00084
9000.0 -2172.2546 -658.94622
9000.0 -2029.7633 -840.7555
9000.0 -1292.0147 -690.59622
9000.0 -1079.2476 -721.13016
9000.0 -850.3115 -697.83261
9000.0 -694.37886 -694.37886
9000.0 -567.1476 -691.07134
9000.0 -449.45632 -672.65892
9000.0 -355.90454 -665.85055
9000.0 -273.23597 -659.64999
9000.0 -198.26443 -653.59025
9000.0 -128.75961 -647.31828
9000.0 -57.830113 -587.15899
9000.0 -0.0 -520.0
9000.0 44.499782 -451.81387
9000.0 55.990922 -281.48537
9000.0 40.639855 -133.97165
9000.0 37.502976 -90.540194
9000.0 31.583581 -59.088725
9000.0 32.778644 -49.056707
9000.0 29.182091 -35.558481
9000.0 26.870058 -26.870058
9000.0 28.601387 -23.472552
9000.0 24.112619 -16.111537
9000.0 26.457638 -14.141902
9000.0 24.020868 -9.949769
9000.0 20.095747 -6.095978
9000.0 18.63492 -3.706716
9000.0 9.951847 -0.980171
9500.0  0.0  0.0
9500.0 2.985554 0.294051
9500.0 13.730994 2.731265
9500.0 13.397165 4.063985
9500.0 19.40147 8.036352
9500.0 22.929953 12.256315
9500.0 24.112619 16.111537
9500.0 24.736335 20.300585
9500.0 24.041631 24.041631
9500.0 23.472552 28.601387
9500.0 24.44509 36.584663
9500.0 24.041234 44.977984
9500.0 22.578323 54.508892
9500.0 22.35192 73.684406
9500.0 20.874664 104.94402
9500.0 36.560393 371.2039
9500.0  0.0 543.0
9500.0 -54.301496 551.33234
9500.0 -110.61621 556.10525
9500.0 -166.91369 550.24069
9500.0 -229.99274 555.2516
9500.0 -300.27972 561.78385
9500.0 -388.34359 581.19726
9500.0 -498.63312 607.58622
9500.0 -763.67532 763.67532
9500.0 -528.73915 433.92501
9500.0 -889.67249 594.46015
9500.0 -2302.6964 1230.8169
9500.0 -2426.1077 1004.9267
9500.0 -3524.4113 1069.1185
9500.0 -3373.9014 671.11071
9500.0 -3694.1257 363.83963
9500.0 -3496.0  0.0
9500.0 -3596.5976 -354.23395
9500.0 -3523.9615 -700.95953
9500.0 -2923.4527 -886.81969
9500.0 -2470.4539 -1023.2955
9500.0 -1580.4029 -844.74295
9500.0 -1233.9009 -824.46623
9500.0 -949.25684 -779.03495
9500.0 -695.79307 -695.79307
9500.0 -528.44961 -643.91771
9500.0 -441.67834 -661.01834
9500.0 -349.30498 -653.50366
9500.0 -266.73035 -643.94403
9500.0 -197.39358 -650.71943
9500.0 -125.0529 -628.68336
9500.0 -48.518484 -492.61644
9500.0 -0.0 -360.0
9500.0 28.522988 -289.59875
9500.0 42.13951 -211.84962
9500.0 36.285585 -119.61754
9500.0 35.589559 -85.920797
9500.0 32.526375 -60.852567
9500.0 31.667503 -47.393768
9500.0 30.450878 -37.104502
9500.0 28.991378 -28.991378
9500.0 27.828376 -22.838158
9500.0 26.607028 -17.778247
9500.0 26.457638 -14.141902
9500.0 24.020868 -9.949769
9500.0 23.923508 -7.257117
9500.0 17.654135 -3.511626
9500.0 12.937401 -1.274223
10000.0  2.0  0.0
10000.0  0.0  0.0
10000.0 12.750209 2.536174
10000.0 16.267986 4.93484
10000.0 23.096988 9.567086
10000.0 23.811874 12.727712
10000.0 25.775558 17.222677
10000.0 24.736335 20.300585
10000.0 22.627417 22.627417
10000.0 24.106945 29.374397
10000.0 24.44509 36.584663
10000.0 24.51263 45.859906
10000.0 22.961006 55.432772
10000.0 22.93249 75.598287
10000.0 18.923761 95.136172
10000.0 12.938263 131.36438
10000.0  0.0 312.0
10000.0 -258.4712 2624.3021
10000.0 -528.69477 2657.9281
10000.0 -758.80415 2501.442
10000.0 -1054.6755 2546.212
10000.0 -1132.7664 2119.2568
10000.0 -1695.6004 2537.6453
10000.0 -2133.4646 2599.6342
10000.0 -2429.6189 2429.6189
10000.0 -2099.4964 1723.0122
10000.0 -2777.94 1856.1601
10000.0 -2973.8385 1589.5498
10000.0 -3222.4918 1334.7998
10000.0 -3147.3768 954.7463
10000.0 -3180.6867 632.67791
10000.0 -3027.3519 298.16814
10000.0 -3018.0  0.0
10000.0 -3041.2845 -299.54038
10000.0 -3257.1879 -647.89496
10000.0 -2891.8737 -877.24029
10000.0 -2665.3925 -1104.0417
10000.0 -2718.9633 -1453.3161
10000.0 -2677.3322 -1788.9361
10000.0 -2715.5857 -2228.6236
10000.0 -2040.0031 -2040.0031
10000.0 -2538.8419 -3093.5878
10000.0 -318.34174 -476.43209
10000.0 -1701.2708 -3182.8538
10000.0 -496.7231 -1199.1956
10000.0 -1032.2523 -3402.8798
10000.0 -158.99861 -799.34
10000.0 -16.46688 -167.19103
10000.0 -0.0 -168.0
10000.0 17.545068 -178.13807
10000.0 34.335897 -172.61821
10000.0 41.220424 -135.88553
10000.0 35.972243 -86.844676
10000.0 34.883359 -65.262174
10000.0 33.889784 -50.719646
10000.0 29.816484 -36.331491
10000.0 27.577164 -27.577164
10000.0 27.828376 -22.838158
10000.0 28.269967 -18.889388
10000.0 24.693795 -13.199109
10000.0 25.868627 -10.715136
10000.0 23.923508 -7.257117
10000.0 22.558061 -4.487077
10000.0 20.898879 -2.05836
10500.0  4.0  0.0
10500.0  0.0  0.0
10500.0 13.730994 2.731265
10500.0 15.311045 4.644555
10500.0 17.553711 7.270985
10500.0 22.929953 12.256315
10500.0 23.281149 15.555967
10500.0 24.736335 20.300585
10500.0 22.627417 22.627417
10500.0 23.472552 28.601387
10500.0 25.00066 37.416133
10500.0 24.041234 44.977984
10500.0 22.578323 54.508892
10500.0 22.061635 72.727466
10500.0 20.094303 101.02088
10500.0 13.330331 135.34512
10500.0  0.0 353.0
10500.0 -265.03835 2690.9795
10500.0 -537.86402 2704.025
10500.0 -793.63831 2616.2749
10500.0 -1017.5552 2456.5957
10500.0 -1401.4625 2621.9519
10500.0 -1827.2705 2734.7036
10500.0 -2005.3172 2443.486
10500.0 -2658.7215 2658.7215
10500.0 -3034.066 2489.9936
10500.0 -3093.067 2066.7213
10500.0 -3045.2741 1627.7329
10500.0 -2986.9025 1237.2155
10500.0 -3033.5009 920.20243
10500.0 -3037.492 604.19473
10500.0 -3024.3664 297.87409
10500.0 -2956.0  0.0
10500.0 -2976.5975 -293.16927
10500.0 -2948.2406 -586.44151
10500.0 -2947.3762 -894.07681
10500.0 -2832.6146 -1173.3074
10500.0 -2902.4029 -1551.3667
10500.0 -2716.4112 -1815.048
10500.0 -2816.8501 -2311.7291
10500.0 -2833.3769 -2833.3769
10500.0 -2452.5644 -2988.4584
10500.0 -2002.2751 -2996.6165
10500.0 -335.63448 -627.92794
10500.0 -1801.2909 -4348.701
10500.0 -1317.8924 -4344.5091
10500.0 -189.82288 -954.30408
10500.0 -16.368862 -166.19585
10500.0 -0.0 -169.0
10500.0 17.83912 -181.12362
10500.0 34.335897 -172.61821
10500.0 40.34957 -133.01471
10500.0 36.73761 -88.692435
10500.0 33.940565 -63.498331
10500.0 33.334214 -49.888177
10500.0 33.622844 -40.969554
10500.0 26.870058 -26.870058
10500.0 28.601387 -23.472552
10500.0 25.775558 -17.222677
10500.0 23.811874 -12.727712
10500.0 26.792506 -11.09782
10500.0 24.880449 -7.547402
10500.0 23.538847 -4.682168
10500.0 13.932586 -1.37224
11000.0  3.0  0.0
11000.0  0.0  0.0
11000.0 16.67335 3.316535
11000.0 18.181866 5.515409
11000.0 22.173109 9.184402
11000.0 22.048032 11.784918
11000.0 22.44968 15.000396
11000.0 25.509345 20.934978
11000.0 24.041631 24.041631
11000.0 25.375731 30.920418
11000.0 26.111801 39.079072
11000.0 24.041234 44.977984
11000.0 23.343689 56.356651
11000.0 22.93249 75.598287
11000.0 20.679574 103.96324
11000.0 13.526365 137.33549
11000.0  0.0 423.0
11000.0 -267.97886 2720.835
11000.0 -537.86402 2704.025
11000.0 -824.40848 2717.7106
11000.0 -1027.1223 2479.6927
11000.0 -1432.1033 2679.2768
11000.0 -1732.8236 2593.3537
11000.0 -2149.9588 2619.7324
11000.0 -2618.4164 2618.4164
11000.0 -2846.2245 2335.8361
11000.0 -3127.9887 2090.0552
11000.0 -2996.7685 1601.8061
11000.0 -3002.6085 1243.7212
11000.0 -3051.6827 925.71784
11000.0 -3054.1654 607.51126
11000.0 -3037.3038 299.14831
11000.0 -2989.0  0.0
11000.0 -2985.5542 -294.05142
11000.0 -2977.6641 -592.29422
11000.0 -2917.7111 -885.07798
11000.0 -2884.3519 -1194.7377
11000.0 -2822.148 -1508.4696
11000.0 -2826.9967 -1888.9388
11000.0 -2855.5006 -2343.4488
11000.0 -2757.0093 -2757.0093
11000.0 -1516.8343 -1848.268
11000.0 -2548.4007 -3813.9511
11000.0 -376.1746 -703.77317
11000.0 -1324.85 -3198.4709
11000.0 -197.39358 -650.71943
11000.0 -117.83455 -592.39431
11000.0 -17.741102 -180.12844
11000.0 -0.0 -172.0
11000.0 17.545068 -178.13807
11000.0 33.360445 -167.71428
11000.0 40.059285 -132.05777
11000.0 36.354926 -87.768556
11000.0 34.411962 -64.380252
11000.0 33.334214 -49.888177
11000.0 33.622844 -40.969554
11000.0 28.284271 -28.284271
11000.0 25.509345 -20.934978
11000.0 26.607028 -17.778247
11000.0 28.22148 -15.084696
11000.0 24.944747 -10.332453
11000.0 24.880449 -7.547402
11000.0 21.577276 -4.291987
11000.0 15.922956 -1.568274
11500.0  3.0  0.0
11500.0  0.0  0.0
11500.0 11.769423 2.341084
11500.0 15.311045 4.644555
11500.0 20.32535 8.419036
11500.0 19.402268 10.370728
11500.0 22.44968 15.000396
11500.0 24.736335 20.300585
11500.0 23.334524 23.334524
11500.0 25.375731 30.920418
11500.0 25.00066 37.416133
11500.0 25.455424 47.623748
11500.0 22.961006 55.432772
11500.0 22.642205 74.641346
11500.0 19.899213 100.0401
11500.0 13.526365 137.33549
11500.0  0.0 484.0
11500.0 -267.97886 2720.835
11500.0 -541.96091 2724.6215
11500.0 -829.92389 2735.8924
11500.0 -1111.6954 2683.87
11500.0 -1401.9339 2622.8338
11500.0 -1598.3756 2392.1381
11500.0 -2285.719 2785.1567
11500.0 -2665.7926 2665.7926
11500.0 -3088.9498 2535.0356
11500.0 -3018.2347 2016.7199
11500.0 -2989.7131 1598.0349
11500.0 -3072.8233 1272.8051
11500.0 -3051.6827 925.71784
11500.0 -3033.5689 603.41437
11500.0 -3018.3953 297.28599
11500.0 -2994.0  0.0
11500.0 -2981.5734 -293.65935
11500.0 -2953.1445 -587.41696
11500.0 -2977.9983 -903.36592
11500.0 -2863.1027 -1185.936
11500.0 -2841.5503 -1518.8403
11500.0 -2922.6157 -1952.8294
11500.0 -2584.947 -2121.4111
11500.0 -2687.7129 -2687.7129
11500.0 -2553.433 -3111.3671
11500.0 -1075.0284 -1608.8937
11500.0 -2223.5784 -4160.0226
11500.0 -481.79844 -1163.1643
11500.0 -1100.1789 -3626.8039
11500.0 -201.91848 -1015.1128
11500.0 -17.741102 -180.12844
11500.0 -0.0 -179.0
11500.0 17.83912 -181.12362
11500.0 33.360445 -167.71428
11500.0 40.059285 -132.05777
11500.0 36.354926 -87.768556
11500.0 33.469168 -62.61641
11500.0 33.889784 -50.719646
11500.0 30.450878 -37.104502
11500.0 28.284271 -28.284271
11500.0 25.509345 -20.934978
11500.0 25.775558 -17.222677
11500.0 28.22148 -15.084696
11500.0 25.868627 -10.715136
11500.0 26.794329 -8.127971
11500.0 20.596491 -4.096897
11500.0 16.91814 -1.666291
12000.0  1.0  0.0
12000.0  0.0  0.0
12000.0 17.654135 3.511626
12000.0 15.311045 4.644555
12000.0 21.249229 8.801719
12000.0 23.811874 12.727712
12000.0 23.281149 15.555967
12000.0 23.190314 19.031799
12000.0 21.92031 21.92031
12000.0 24.741338 30.147408
12000.0 23.88952 35.753193
12000.0 24.51263 45.859906
12000.0 22.961006 55.432772
12000.0 22.642205 74.641346
12000.0 20.289393 102.00167
12000.0 14.114468 143.3066
12000.0  0.0 334.0
12000.0 -261.50973 2655.1529
12000.0 -532.79167 2678.5246
12000.0 -784.3492 2585.6528
12000.0 -926.09391 2235.7885
12000.0 -1263.8147 2364.4309
12000.0 -1508.3732 2257.44
12000.0 -1663.3792 2026.8334
12000.0 -2344.059 2344.059
12000.0 -2913.4764 2391.0283
12000.0 -3209.4727 2144.5011
12000.0 -2961.4916 1582.9502
12000.0 -3005.3801 1244.8692
12000.0 -3107.1853 942.55435
12000.0 -3086.5313 613.94924
12000.0 -3053.2267 300.71659
12000.0 -3099.0  0.0
12000.0 -3069.1497 -302.28486
12000.0 -3122.8203 -621.16759
12000.0 -2839.242 -861.27464
12000.0 -2865.8743 -1187.084
12000.0 -2855.6611 -1526.3826
12000.0 -2652.3881 -1772.269
12000.0 -3003.9186 -2465.2523
12000.0 -2777.5154 -2777.5154
12000.0 -2245.1178 -2735.684
12000.0 -1044.472 -1563.1629
12000.0 -1176.6063 -2201.2755
12000.0 -1342.4535 -3240.9694
12000.0 -261.25621 -861.2463
12000.0 -158.21825 -795.41686
12000.0 -17.349034 -176.1477
12000.0 -0.0 -178.0
12000.0 18.035154 -183.11399
12000.0 34.726077 -174.57978
12000.0 40.059285 -132.05777
12000.0 36.73761 -88.692435
12000.0 34.883359 -65.262174
12000.0 34.445354 -51.551116
12000.0 33.622844 -40.969554
12000.0 28.991378 -28.991378
12000.0 28.601387 -23.472552
12000.0 28.269967 -18.889388
12000.0 24.693795 -13.199109
12000.0 25.868627 -10.715136
12000.0 26.794329 -8.127971
12000.0 22.558061 -4.487077
12000.0 16.91814 -1.666291
12500.0 771.0  0.0
12500.0  0.0  0.0
12500.0 5.884712 1.170542
12500.0 14.354105 4.35427
12500.0 20.32535 8.419036
12500.0 19.402268 10.370728
12500.0 20.78674 13.889256
12500.0 25.509345 20.934978
12500.0 25.455844 25.455844
12500.0 23.472552 28.601387
12500.0 24.44509 36.584663
12500.0 24.51263 45.859906
12500.0 22.578323 54.508892
12500.0 22.061635 72.727466
12500.0 19.899213 100.0401
12500.0 13.7224 139.32586
12500.0  0.0 400.0
12500.0 -264.25421 2683.018
12500.0 -532.59658 2677.5438
12500.0 -679.84671 2241.1543
12500.0 -717.53144 1732.2741
12500.0 -1336.8811 2501.1287
12500.0 -1296.7009 1940.6501
12500.0 -2783.7177 3391.9699
12500.0 -2493.9656 2493.9656
12500.0 -3223.4536 2645.42
12500.0 -3221.9447 2152.8347
12500.0 -3588.5376 1918.1133
12500.0 -3076.5188 1274.3358
12500.0 -3153.1184 956.48801
12500.0 -3331.7276 662.72182
12500.0 -3526.9347 347.37275
12500.0 -3456.0  0.0
12500.0 -3417.4644 -336.59086
12500.0 -3262.0918 -648.87041
12500.0 -3473.6934 -1053.7334
12500.0 -3141.1904 -1301.1237
12500.0 -3129.0566 -1672.5156
12500.0 -2234.1588 -1492.8172
12500.0 -2858.5927 -2345.9864
12500.0 -2537.0991 -2537.0991
12500.0 -2791.9648 -3402.019
12500.0 -2554.5119 -3823.0973
12500.0 -1528.7396 -2860.0707
12500.0 -1239.129 -2991.5219
12500.0 -606.69497 -2000.0053
12500.0 -112.76221 -566.89389
12500.0 -16.172828 -164.20548
12500.0 -0.0 -167.0
12500.0 17.054982 -173.16214
12500.0 34.726077 -174.57978
12500.0 39.769001 -131.10083
12500.0 35.589559 -85.920797
12500.0 33.940565 -63.498331
12500.0 32.778644 -49.056707
12500.0 32.354057 -39.423533
12500.0 26.870058 -26.870058
12500.0 27.055366 -22.203765
12500.0 25.775558 -17.222677
12500.0 28.22148 -15.084696
12500.0 23.096988 -9.567086
12500.0 22.009628 -6.676548
12500.0 18.63492 -3.706716
12500.0 12.937401 -1.274223
13000.0  5.0  0.0
13000.0 9.951847 0.980171
13000.0 15.692564 3.121445
13000.0 20.095747 6.095978
13000.0 20.32535 8.419036
13000.0 23.811874 12.727712
13000.0 23.281149 15.555967
13000.0 27.055366 22.203765
13000.0 23.334524 23.334524
13000.0 25.375731 30.920418
13000.0 24.44509 36.584663
13000.0 25.455424 47.623748
13000.0 23.726373 57.280531
13000.0 22.642205 74.641346
13000.0 19.704123 99.059313
13000.0 13.624383 138.33068
13000.0  0.0 332.0
13000.0 -268.37093 2724.8158
13000.0 -546.2529 2746.1988
13000.0 -775.06009 2555.0307
13000.0 -899.30607 2171.1169
13000.0 -870.19838 1628.0267
13000.0 -1017.2491 1522.4209
13000.0 -1580.2737 1925.569
13000.0 -3191.88 3191.88
13000.0 -2936.6667 2410.0601
13000.0 -794.88495 531.12514
13000.0 -2790.3989 1491.4993
13000.0 -3301.0216 1367.3279
13000.0 -3487.0906 1057.7974
13000.0 -3298.3809 656.08875
13000.0 -3793.6442 373.64134
13000.0 -3422.0  0.0
13000.0 -3697.1113 -364.13368
13000.0 -3712.2723 -738.41687
13000.0 -3377.9994 -1024.7049
13000.0 -3680.7361 -1524.6108
13000.0 -2910.3402 -1555.6092
13000.0 -2840.3002 -1897.8279
13000.0 -2758.1013 -2263.5152
13000.0 -2842.5693 -2842.5693
13000.0 -751.12165 -915.24438
13000.0 -1030.0272 -1541.5447
13000.0 -1211.0182 -2265.6557
13000.0 -202.43954 -488.73227
13000.0 -768.67382 -2533.978
13000.0 -150.02446 -754.22388
13000.0 -16.662914 -169.1814
13000.0 -0.0 -174.0
13000.0 16.858948 -171.17177
13000.0 33.945716 -170.65664
13000.0 38.607862 -127.27307
13000.0 35.589559 -85.920797
13000.0 34.411962 -64.380252
13000.0 33.889784 -50.719646
13000.0 31.085271 -37.877512
13000.0 28.284271 -28.284271
13000.0 27.828376 -22.838158
13000.0 28.269967 -18.889388
13000.0 26.457638 -14.141902
13000.0 25.868627 -10.715136
13000.0 23.923508 -7.257117
13000.0 23.538847 -4.682168
13000.0 14.927771 -1.470257
13500.0  5.0  0.0
13500.0 9.951847 0.980171
13500.0 15.692564 3.121445
13500.0 18.181866 5.515409
13500.0 23.096988 9.567086
13500.0 25.575717 13.670505
13500.0 24.112619 16.111537
13500.0 26.282355 21.569372
13500.0 26.162951 26.162951
13500.0 24.106945 29.374397
13500.0 25.00066 37.416133
13500.0 24.51263 45.859906
13500.0 23.726373 57.280531
13500.0 22.642205 74.641346
13500.0 19.899213 100.0401
13500.0 13.526365 137.33549
13500.0  0.0 367.0
13500.0 -269.15507 2732.7773
13500.0 -546.2529 2746.1988
13500.0 -613.08124 2021.058
13500.0 -949.4376 2292.1451
13500.0 -1414.6616 2646.6457
13500.0 -533.90299 799.0423
13500.0 -1228.1854 1496.5482
13500.0 -576.29203 576.29203
13500.0 -3265.1962 2679.6772
13500.0 -3002.4368 2006.1641
13500.0 -3512.6924 1877.5732
13500.0 -3635.466 1505.8593
13500.0 -3489.9614 1058.6682
13500.0 -3772.1002 750.31738
13500.0 -3741.8946 368.54445
13500.0 -3590.0  0.0
13500.0 -3590.6265 -353.64584
13500.0 -3640.675 -724.17528
13500.0 -4109.1018 -1246.4824
13500.0 -2298.6123 -952.11638
13500.0 -2916.5136 -1558.909
13500.0 -2963.3577 -1980.0523
13500.0 -3350.2273 -2749.4605
13500.0 -2737.2103 -2737.2103
13500.0 -1676.0671 -2042.2936
13500.0 -520.01374 -778.25556
13500.0 -289.4376 -541.49966
13500.0 -357.42633 -862.90348
13500.0 -563.15227 -1856.4643
13500.0 -274.68717 -1380.9457
13500.0 -17.349034 -176.1477
13500.0 -0.0 -168.0
13500.0 16.368862 -166.19585
13500.0 33.945716 -170.65664
13500.0 39.769001 -131.10083
13500.0 35.589559 -85.920797
13500.0 33.940565 -63.498331
13500.0 33.889784 -50.719646
13500.0 31.719664 -38.650523
13500.0 28.284271 -28.284271
13500.0 26.282355 -21.569372
13500.0 28.269967 -18.889388
13500.0 25.575717 -13.670505
13500.0 27.716386 -11.480503
13500.0 23.923508 -7.257117
13500.0 23.538847 -4.682168
13500.0 15.922956 -1.568274
14000.0  4.0  0.0
14000.0 10.947032 1.078189
14000.0 15.692564 3.121445
14000.0 21.052687 6.386263
14000.0 22.173109 9.184402
14000.0 23.811874 12.727712
14000.0 24.944088 16.667107
14000.0 26.282355 21.569372
14000.0 24.748737 24.748737
14000.0 26.644518 32.466439
14000.0 24.44509 36.584663
14000.0 24.51263 45.859906
14000.0 23.726373 57.280531
14000.0 22.35192 73.684406
14000.0 20.094303 101.02088
14000.0 13.526365 137.33549
14000.0  0.0 410.0
14000.0 -267.78283 2718.8447
14000.0 -535.13275 2690.294
14000.0 -695.81237 2293.786
14000.0 -706.43362 1705.4816
14000.0 -927.23738 1734.7391
14000.0 -1375.0363 2057.8873
14000.0 -1984.3822 2417.9767
14000.0 -396.6869 396.6869
14000.0 -2945.9428 2417.6728
14000.0 -3382.4184 2260.0597
14000.0 -3597.3568 1922.8273
14000.0 -3731.5494 1545.6584
14000.0 -3511.971 1065.3448
14000.0 -3643.6173 724.76055
14000.0 -3491.108 343.84413
14000.0 -3599.0  0.0
14000.0 -3935.9556 -387.65779
14000.0 -3642.6365 -724.56546
14000.0 -4023.9341 -1220.6471
14000.0 -3324.1186 -1376.895
14000.0 -3204.02 -1712.5843
14000.0 -3330.0358 -2225.0588
14000.0 -3156.9747 -2590.8622
14000.0 -2829.8413 -2829.8413
14000.0 -546.84701 -666.33501
14000.0 -1110.0293 -1661.2763
14000.0 -302.63671 -566.19345
14000.0 -681.94188 -1646.3533
14000.0 -186.65305 -615.31264
14000.0 -894.29404 -4495.9197
14000.0 -17.153 -174.15733
14000.0 -0.0 -174.0
14000.0 18.035154 -183.11399
14000.0 33.555535 -168.69507
14000.0 38.317577 -126.31612
14000.0 35.589559 -85.920797
14000.0 33.940565 -63.498331
14000.0 33.334214 -49.888177
14000.0 31.085271 -37.877512
14000.0 28.284271 -28.284271
14000.0 27.828376 -22.838158
14000.0 28.269967 -18.889388
14000.0 25.575717 -13.670505
14000.0 24.944747 -10.332453
14000.0 23.923508 -7.257117
14000.0 22.558061 -4.487077
14000.0 13.932586 -1.37224
14500.0  6.0  0.0
14500.0 9.951847 0.980171
14500.0 19.615706 3.901806
14500.0 19.138807 5.805694
14500.0 21.249229 8.801719
14500.0 22.929953 12.256315
14500.0 25.775558 17.222677
14500.0 25.509345 20.934978
14500.0 25.455844 25.455844
14500.0 24.741338 30.147408
14500.0 24.44509 36.584663
14500.0 24.51263 45.859906
