 0.0 156.0  0.0
 0.0 149.27771 14.702571
 0.0 145.15622 28.873368
 0.0 135.88553 41.220424
 0.0 129.34313 53.575681
 0.0 121.70513 65.05275
 0.0 113.07987 75.557552
 0.0 109.76748 90.083846
 0.0 98.994949 98.994949
 0.0 90.083846 109.76748
 0.0 83.891105 125.55191
 0.0 71.180907 133.17011
 0.0 61.994716 149.66848
 0.0 49.05811 161.72292
 0.0 36.48189 183.40685
 0.0 23.818165 241.82989
 0.0  0.0 258.0
 0.0 -24.504285 248.79618
 0.0 -48.57749 244.21553
 0.0 -69.958607 230.62262
 0.0 -89.547923 216.18781
 0.0 -107.47846 201.07805
 0.0 -126.67001 189.57507
 0.0 -146.54485 178.56542
 0.0 -164.04877 164.04877
 0.0 -187.06853 153.52318
 0.0 -200.38418 133.89243
 0.0 -225.77184 120.67757
 0.0 -250.37135 103.70721
 0.0 -277.5127 84.182556
 0.0 -313.85129 62.428903
 0.0 -336.37244 33.129793
 0.0 -407.0  0.0
 0.0 -496.59718 -48.910553
 0.0 -547.27819 -108.8604
 0.0 -529.18801 -160.52743
 0.0 -448.08157 -185.60146
 0.0 -388.92728 -207.88596
 0.0 -410.74599 -274.45169
 0.0 -425.92876 -349.5507
 0.0 -401.63665 -401.63665
 0.0 -359.70099 -438.29693
 0.0 -316.11946 -473.10621
 0.0 -255.02563 -477.1194
 0.0 -195.16855 -471.17856
 0.0 -103.63163 -341.6277
 0.0 -49.943122 -251.08103
 0.0 -21.759805 -220.93101
 0.0 -0.0 -216.0
 0.0 20.583599 -208.98879
 0.0 40.578787 -204.00334
 0.0 62.70149 -206.69911
 0.0 181.77463 -438.84278
 0.0 280.00966 -523.86123
 0.0 360.56508 -539.62378
 0.0 419.96835 -511.73292
 0.0 474.46865 -474.46865
 0.0 480.8125 -394.59262
 0.0 340.07107 -227.22823
 0.0 261.93062 -140.00483
 0.0 224.50273 -92.992074
 0.0 202.87135 -61.540352
 0.0 195.17627 -38.822974
 0.0 176.1477 -17.349034
100.0 156.0  0.0
100.0 154.25363 15.192657
100.0 145.15622 28.873368
100.0 135.88553 41.220424
100.0 131.19089 54.341047
100.0 123.46898 65.995543
100.0 113.07987 75.557552
100.0 112.08652 91.987026
100.0 99.702056 99.702056
100.0 90.083846 109.76748
100.0 82.224394 123.0575
100.0 72.595097 135.81588
100.0 62.760083 151.51624
100.0 49.05811 161.72292
100.0 37.652432 189.29156
100.0 24.210234 245.81063
100.0  0.0 258.0
100.0 -24.602302 249.79137
100.0 -48.772581 245.19632
100.0 -69.958607 230.62262
100.0 -89.547923 216.18781
100.0 -108.42125 202.84189
100.0 -127.78115 191.23801
100.0 -146.54485 178.56542
100.0 -166.8772 166.8772
100.0 -185.52251 152.25439
100.0 -205.37299 137.22585
100.0 -225.77184 120.67757
100.0 -251.29523 104.08989
100.0 -278.46964 84.472841
100.0 -316.79365 63.014174
100.0 -339.35799 33.423845
100.0 -405.0  0.0
100.0 -492.61644 -48.518484
100.0 -549.23976 -109.25058
100.0 -506.22144 -153.56059
100.0 -453.62485 -187.89756
100.0 -388.92728 -207.88596
100.0 -410.74599 -274.45169
100.0 -428.24779 -351.45388
100.0 -401.63665 -401.63665
100.0 -358.43221 -436.75091
100.0 -317.2306 -474.76915
100.0 -255.49703 -478.00133
100.0 -199.37807 -481.34124
100.0 -107.11505 -353.11098
100.0 -50.528393 -254.02339
100.0 -22.053857 -223.91656
100.0 -0.0 -206.0
100.0 20.681617 -209.98398
100.0 40.578787 -204.00334
100.0 62.120921 -204.78523
100.0 176.03438 -424.98458
100.0 270.11033 -505.34088
100.0 360.56508 -539.62378
100.0 418.69957 -510.1869
100.0 470.22601 -470.22601
100.0 382.64017 -314.02468
100.0 352.54312 -235.56178
100.0 268.10406 -143.30461
100.0 228.19824 -94.522808
100.0 200.95747 -60.959782
100.0 198.11863 -39.408245
100.0 179.13325 -17.643085
200.0 158.0  0.0
200.0 151.26808 14.898605
200.0 145.15622 28.873368
200.0 135.88553 41.220424
200.0 131.19089 54.341047
200.0 124.3509 66.46694
200.0 113.07987 75.557552
200.0 111.31351 91.352633
200.0 98.287843 98.287843
200.0 91.352633 111.31351
200.0 82.779965 123.88897
200.0 72.595097 135.81588
200.0 63.908133 154.28788
200.0 48.767826 160.76598
200.0 37.262252 187.32999
200.0 24.112217 244.81544
200.0  0.0 261.0
200.0 -24.798337 251.78174
200.0 -48.772581 245.19632
200.0 -70.248892 231.57956
200.0 -89.930607 217.11169
200.0 -108.89265 203.72381
200.0 -127.78115 191.23801
200.0 -147.81364 180.11144
200.0 -166.8772 166.8772
200.0 -184.7495 151.61999
200.0 -208.69887 139.44813
200.0 -227.53569 121.62036
200.0 -251.29523 104.08989
200.0 -280.38352 85.05341
200.0 -318.75522 63.404355
200.0 -335.37725 33.031776
200.0 -405.0  0.0
200.0 -496.59718 -48.910553
200.0 -550.22054 -109.44567
200.0 -503.35062 -152.68974
200.0 -452.70097 -187.51488
200.0 -388.92728 -207.88596
200.0 -414.90334 -277.22955
200.0 -428.24779 -351.45388
200.0 -400.92955 -400.92955
200.0 -359.70099 -438.29693
200.0 -316.11946 -473.10621
200.0 -253.61144 -474.47364
200.0 -197.84733 -477.64572
200.0 -106.24419 -350.24016
200.0 -50.333303 -253.0426
200.0 -21.955839 -222.92138
200.0 -0.0 -207.0
200.0 20.583599 -208.98879
200.0 40.188606 -202.04177
200.0 61.830636 -203.82829
200.0 173.73828 -419.44131
200.0 271.05312 -507.10473
200.0 359.45394 -537.96084
200.0 418.69957 -510.1869
200.0 469.5189 -469.5189
200.0 377.2291 -309.58392
200.0 349.21724 -233.3395
200.0 269.86791 -144.2474
200.0 224.50273 -92.992074
200.0 202.87135 -61.540352
200.0 197.13784 -39.213155
200.0 178.13807 -17.545068
